# .PCD v0.7 - Point Cloud Data file format
VERSION 0.7
FIELDS x y z intensity
SIZE 4 4 4 4
TYPE F F F F
COUNT 1 1 1 1
WIDTH 1225
HEIGHT 1
VIEWPOINT 0 0 0 1 0 0 0
POINTS 1225
DATA ascii
21.376785 23.74403 -1.8940676 4.3333335
21.393312 24.215063 -1.8625276 4.5789475
21.364197 24.639532 -1.8778825 4.1428571
21.374985 25.038652 -1.8946469 3.9473684
21.36302 25.371775 -1.8863277 3.7391305
21.39156 25.793543 -1.8963652 4.1199999
21.431726 26.162651 -1.9111584 3.8461537
21.392586 26.604391 -1.9256653 3.9375
21.402952 26.992891 -1.9102901 3.9444444
21.405098 27.378019 -1.9142008 3.6666667
21.408863 27.834948 -1.9021871 3.125
21.348162 28.180124 -1.8868856 3.25
21.397631 28.568764 -1.9065928 3.0714285
21.406616 28.98933 -1.9055443 4.0833335
21.365326 29.393297 -1.908076 3.7272727
21.402876 29.808588 -1.9120669 2.8888888
21.413349 30.197365 -1.9023412 2.2
21.342516 30.610842 -1.9175309 3.5652175
21.416727 31.026442 -1.9264858 3.3
21.432341 31.423206 -1.9243343 3.1500001
21.399504 31.769768 -1.9189318 2.9000001
21.444683 32.150509 -1.9205394 2.8
21.375423 32.589764 -1.9217938 2.6500001
21.428125 33.025578 -1.9135329 2.6111112
21.433306 33.410595 -1.9223582 2.625
21.39921 33.780739 -1.9214579 2.4736843
21.403246 34.218769 -1.9334788 3.1363637
21.439396 34.582935 -1.9243137 2
21.409657 35.009064 -1.9343162 3
21.43622 35.427883 -1.9464351 2.8125
21.337847 35.798542 -1.9450331 3.4210527
21.39007 36.196823 -1.941321 2.0833333
21.399433 36.565376 -1.9514129 2.7272727
21.396505 36.994404 -1.9476496 2.5555556
21.439648 37.38055 -1.9455938 2.6470587
21.348494 37.855568 -1.9483625 3.0833333
21.41287 38.182858 -1.9538151 2.5384614
21.436255 38.580849 -1.9541473 2.25
21.434753 38.952316 -1.9674439 2.4000001
21.366201 39.411346 -1.9546438 2.9000001
21.389376 39.787685 -1.938822 3.3
21.395599 40.156288 -1.9682299 1.7692307
21.407797 40.607483 -1.9639831 2.2222223
21.35821 41.062347 -1.9703574 2.5454545
21.412228 41.380615 -1.9778837 2.6363637
21.384911 41.841366 -1.976235 2.5
21.372692 42.174313 -1.9767447 2.0555556
21.386963 42.642159 -1.9833782 2.4285715
21.404104 42.931419 -1.9698151 2.4166667
21.421465 43.402901 -1.9599718 1.6666666
21.383993 43.799881 -1.9605116 2.2857144
21.406712 44.227798 -1.9722604 2.4285715
21.382788 44.614277 -1.9768548 2.3333333
21.452719 44.946327 -1.9843603 2.4444444
21.32048 45.501019 -1.9886785 3
21.353186 45.760262 -1.9855146 2.5999999
21.413914 46.161072 -1.9967469 1.6
21.380772 46.612484 -1.9720505 5
21.455818 49.269711 -1.9991692 2
21.358246 49.734203 -1.9976672 6
21.548044 50.36327 -1.978691 6
21.428919 51.17815 -1.9979892 6
21.417309 58.211147 -1.7706215 4.719512
21.385151 0.65276968 -1.4141371 4.8648648
21.454679 5.8303843 -1.4118973 5.5
21.403 58.228748 -1.373479 5.318182
21.38924 0.64144862 -0.96748048 6.0638299
21.480791 5.7714858 -1.1010007 6.1111112
21.40056 58.222229 -1.0016847 6.3809524
21.397371 0.62763304 -0.59571528 6.9285712
21.400305 58.236378 -0.67511702 7.0816326
21.512278 58.404514 -0.5883832 7.5
21.38588 0.651838 -0.1144909 7.9163437
21.399824 58.224224 -0.17101647 8.1803274
21.500216 58.413555 -0.028959945 9
21.397434 -2.1190436 0.29419908 8.346056
21.271734 -1.8917563 0.38908842 9.1595001
21.384949 0.64713156 0.19581051 8.4060593
21.378923 23.290445 0.36916637 8.1005001
21.482311 39.573143 0.39976197 10.0735
21.423679 39.617432 0.38433212 9.1156664
21.450445 42.488873 0.39488277 11.0755
21.379028 44.954796 0.37955338 11.050339
21.527737 47.567844 0.38147107 9.0725002
21.384661 47.660686 0.38047177 13.133015
21.368841 50.341927 0.35773996 11.661139
21.411888 50.413391 0.35845295 9.6332493
21.400419 53.018314 0.33088046 11.623376
21.408052 55.71418 0.31463975 10.73725
21.414623 56.964413 0.29859564 10.560624
21.386028 57.473167 0.28869787 10.046584
21.357851 57.679802 0.29271647 10.029333
21.399109 58.236897 0.17217468 9.0557566
21.360229 58.420643 0.19900857 8.1754999
21.423035 -2.0701404 0.76022029 10.166
21.389856 -1.6587039 0.56972969 8.9200001
21.442524 -1.5510331 0.53952843 9.079833
21.321299 -0.89407784 0.53352922 9.5352497
21.389112 0.625184 0.51861513 8.7853603
21.44207 1.7914081 0.52704382 9.658
21.463108 2.0072958 0.54816771 9.6584997
21.35272 4.3680434 0.58063549 8.6062508
21.462412 4.4969006 0.53145897 9.4449997
21.378902 5.3963051 0.68221909 9.4189291
21.425503 5.7969646 0.62554121 9.1390829
21.436188 6.3211627 0.69140142 9.310792
21.431068 6.4142089 0.73391807 10.6475
21.29652 7.1744409 0.50586003 9.3977499
21.418163 7.2113442 0.47731623 9.1627502
21.460423 9.5404463 0.62162358 8.1403341
21.302689 9.6953573 0.48382387 8.463666
21.365137 12.566126 0.53922296 8.637125
21.433237 13.529312 0.70520306 9.8635273
21.402428 13.778558 0.58767557 9.967
21.472233 14.199035 0.6005404 9.6402092
21.370029 14.459049 0.70256108 9.9882917
21.233425 15.1742 0.71836066 8.1475
21.355232 15.250679 0.53538108 8.7702494
21.421394 17.965767 0.50989246 8.5342007
21.306801 18.018465 0.74567479 9.1490002
21.330864 20.668148 0.50776023 8.5359993
21.398092 21.179781 0.49973264 8.8163338
21.372669 21.350145 0.55637032 8.755559
21.325026 21.660358 0.64936119 9.8382864
21.509604 22.246601 0.63079792 9.1387501
21.370169 22.457348 0.64958149 9.2963428
21.40119 23.370041 0.48243627 9.0005836
21.395224 25.808619 0.47232607 8.9740629
21.467403 28.690922 0.47781879 9.4574995
21.441763 28.846432 0.4618237 9.8823757
21.428885 29.770756 0.63698614 9.4493055
21.43091 30.134769 0.59378254 10.629875
21.39666 30.573269 0.67390686 9.9415312
21.364479 31.436583 0.50903183 10.206779
21.36286 34.193779 0.52778137 10.610953
21.258774 36.771896 0.56052738 9.1446676
21.325829 36.849693 0.5270943 11.571976
21.384098 37.773834 0.67067891 11.370162
21.374102 38.223309 0.57331324 13.111057
21.406216 38.61351 0.649988 11.983751
21.334621 39.533684 0.54119945 11.341838
21.450748 39.610905 0.46856219 8.1424999
21.348829 42.497696 0.52180308 11.677655
21.322639 44.937572 0.52924401 12.353813
21.369743 45.833958 0.61305833 11.571624
21.3955 46.176666 0.5135203 13.281999
21.376316 46.667301 0.55456567 13.737352
21.29578 46.829094 0.53576165 11.810542
21.449383 47.578495 0.46896166 14.478834
21.358027 47.650803 0.50936681 11.750566
21.341539 50.331455 0.51701337 12.101537
21.235359 52.787502 0.79932225 10.09575
21.386238 53.009743 0.55563486 12.927715
21.393497 53.884087 0.5902825 11.765105
21.426514 54.193291 0.45640409 12.734141
21.333696 54.593243 0.45227852 12.67397
21.376896 55.71767 0.44110939 11.083
21.385073 57.019547 0.6943922 12.063416
21.387238 57.392204 0.77168679 12.05465
21.534428 57.977959 0.77868432 12.032375
21.385174 58.259628 0.57288206 10.074417
21.491543 -1.3849288 0.94472593 11.175625
21.240396 -0.93797517 0.94402081 11.17425
21.412109 0.67274576 1.0437868 10
21.379404 1.033092 0.99052286 10.361167
21.384823 1.4979836 1.0405694 11.004499
21.436741 1.8976183 1.0115271 11.00175
21.43915 2.162961 0.97420263 11.23275
21.478624 2.5670774 0.97172755 10.901786
21.391195 3.0236506 0.93708611 11.407063
21.412624 3.363385 0.97111011 11.389
21.364422 3.8463581 1.0070685 11.392624
21.400888 4.2195878 0.99246788 11.458095
21.409973 4.5963984 0.96288157 11.911813
21.480883 5.0566626 0.99214876 12.167
21.427963 5.3507128 0.93398553 11.170001
21.40036 6.3026085 0.85543251 9.5988884
21.458874 7.528789 1.0510262 11.168
21.485998 7.8232331 0.97531301 11.08225
21.40922 8.3272085 0.91831297 11.034187
21.348778 8.7000532 0.92449516 11.138749
21.40024 9.0472908 0.92616916 11.1397
21.43335 9.3876352 0.94153529 11.019062
21.445055 9.8075008 0.94008416 10.97825
21.396786 10.242571 0.92716974 11.140875
21.344809 10.600625 0.95403427 10.815084
21.352943 10.987553 0.94370979 10.972917
21.364937 11.417922 0.92358321 11.135301
21.340286 11.793756 0.94692963 10.906083
21.408241 12.206624 0.94901764 10.877
21.416067 12.578045 0.93884945 10.958857
21.379766 13.007655 0.92821133 11.06625
21.41679 13.427015 0.90492719 10.516344
21.226561 14.316349 1.0484571 9.1780005
21.311277 14.619989 0.90540576 10.894938
21.472284 14.985494 0.91766745 11.070188
21.405407 15.279362 0.91810334 11.066626
21.353928 15.83424 0.9188959 11.05585
21.449772 16.255013 0.97686738 10.104151
21.334244 16.616264 0.961523 10.245749
21.318922 16.926445 0.92788434 11.13075
21.503159 17.476898 0.9228456 11.139151
21.489752 17.847342 0.91856712 11.054601
21.424181 18.26922 0.92012912 10.752251
21.34156 18.573044 0.91557986 11.063749
21.355171 18.943083 0.92753869 10.795465
21.381781 19.43882 0.91535759 11.098823
21.356876 19.756329 0.93891156 10.474167
21.357384 20.214506 0.91219682 11.113917
21.322521 20.571501 0.95137054 10.421291
21.424795 21.082842 0.91771728 11.065813
21.481823 21.535456 0.88313317 9.9921427
21.427202 21.603859 0.92032903 9.1429996
21.46167 22.385365 0.95102417 10.14425
21.320936 22.477423 0.96081251 9.7007189
21.320704 22.960239 0.95583874 10.333728
21.344065 23.295773 0.92135811 10.674749
21.344248 23.750847 0.94702536 10.402499
21.418177 24.184639 0.88429356 10.660893
21.411339 24.607397 0.90480816 10.905167
21.406937 24.927006 0.91670543 10.860374
21.453644 25.461689 0.89261246 10.112
21.486134 25.60166 0.88363951 11.13325
21.508417 26.537357 0.93588465 10.6203
21.430803 26.91338 0.92915559 10.746292
21.351278 27.411469 0.90991932 10.872049
21.260151 27.744368 0.88974363 11.0475
21.365347 28.147015 0.92007035 11.091938
21.329367 28.642433 0.8894518 10.811875
21.244389 28.971436 0.89662337 11.066
21.348776 29.471474 0.90109777 10.117874
21.501562 29.722073 0.85278267 9.1055002
21.367601 30.624277 0.84514517 11.362766
21.400417 31.012012 0.95132118 10.99825
21.415493 31.399481 0.93964159 11.912795
21.403341 31.775518 0.95388609 11.72696
21.430115 32.245941 0.92472184 11.644341
21.401194 32.636341 0.91765594 11.632222
21.415337 33.019714 0.92673957 12.210293
21.331116 33.413036 0.92569572 12.32448
21.291899 33.81263 0.92216939 12.126183
21.337362 34.197788 0.90812171 11.88448
21.297787 34.62851 0.92495227 12.885713
21.309801 35.053154 0.92767429 13.117778
21.36245 35.453598 0.92743325 13.023676
21.348932 35.806271 0.92328262 12.987719
21.453642 36.201347 0.92181468 12.595917
21.411955 36.556446 0.91753197 12.463068
21.314526 36.982204 0.91236764 12.465725
21.438662 37.369164 0.91422129 11.428083
21.322309 37.775471 0.88106084 9.93925
21.423468 38.69128 0.91107547 14.311063
21.335527 38.854382 0.91812861 13.164499
21.432581 39.489803 0.89105594 13.212393
21.335028 39.812206 0.90415472 13.341874
21.375233 40.118847 0.89969063 12.062
21.386881 40.617626 0.89543819 12.332707
21.424356 41.046951 0.89265585 12.740156
21.415634 41.408047 0.88872397 11.990351
21.40633 41.794388 0.9034304 13.132375
21.387257 42.267105 0.89432651 12.52575
21.41683 42.617065 0.89346558 13.32307
21.390774 42.965984 0.89964134 12.615717
21.455103 43.406975 0.89499098 13.004009
21.377647 43.854774 0.88289261 13.133842
21.41679 44.154297 0.86903906 13.105666
21.443413 44.598907 0.86805058 12.800062
21.221893 45.038582 0.881468 14.111
21.368265 45.386986 0.86761934 12.935428
21.363331 45.793491 0.83732289 10.478125
21.46224 46.767929 0.81992793 14.15825
21.382063 46.872234 0.85880101 15.077875
21.401464 47.791412 0.84833807 14.811833
21.40346 48.241383 0.84399337 13.609125
21.454748 48.614861 0.84718305 14.074333
21.359547 49.374237 0.84183156 13.9086
21.438881 49.856281 0.84194875 14.109417
21.371471 50.247192 0.84078604 13.40675
21.339699 50.616169 0.83280867 12.442626
21.504652 51.02301 0.82691616 12.463499
21.329071 51.517864 0.82660496 14.60925
21.412006 51.699715 0.82333946 13.104126
21.39596 52.191013 0.81909686 11.8806
21.333202 52.608959 0.81825715 13.605625
21.426376 52.997093 0.80753422 13.597063
21.366299 53.320515 0.80982143 12.102
21.349131 53.706749 0.80680561 13
21.631147 7.7813292 -2.0064387 6
21.771772 26.659615 -2.0063868 5
21.827307 27.926828 -2.00933 5
21.676968 37.781818 -2.0154722 3
21.854717 38.187134 -2.0130465 2.6666667
21.922277 38.61375 -2.0062666 3
21.779839 39.422352 -2.0159595 3.6666667
21.905247 39.685345 -2.0005026 4
21.65093 40.328453 -2.0102592 3
21.812635 40.609138 -2.0082774 3.8
21.687677 40.935734 -2.0155454 4
21.743685 41.49461 -2.0156243 4
21.93322 41.643509 -2.0156124 4
21.671616 42.649078 -2.0178337 6
21.784716 43.102215 -2.0165789 5
21.859051 43.351559 -2.0367887 4.5
21.86651 43.943741 -2.0021973 3
21.841848 44.210838 -2.0058641 3.5
21.796341 44.522099 -2.0165253 3.5
21.915077 44.913048 -2.0029125 1.3333334
21.822102 45.355812 -2.0177519 1.8571428
21.904676 45.813416 -2.0084026 2.7142856
21.816835 46.158783 -2.0084288 2
21.902311 46.4664 -2.0136306 1.5
21.763529 47.168125 -2.0159993 2.5
21.809574 47.456066 -2.0290673 3.3636363
21.81843 47.748138 -2.02317 2.8461537
21.848007 48.154415 -2.0261874 1.7142857
21.778898 48.543854 -2.0289507 1
21.962904 48.928795 -2.0258241 1.6666666
21.798731 49.429886 -2.0325451 1.6666666
21.760439 49.73526 -2.0390885 3.3333333
21.783455 50.267235 -2.0308945 2.3333333
21.794914 50.530701 -2.0351143 3.2222223
21.821047 51.036949 -2.0390871 2.2
21.800245 51.453243 -2.0430236 2.0999999
21.761856 51.755993 -2.0403798 3
21.852533 52.129158 -2.0472124 2.4285715
21.823599 52.614712 -2.0561202 2
21.816126 53.023277 -2.0608974 2.125
21.870426 53.340462 -2.0659411 2.6666667
21.779459 53.812012 -2.0683608 2
21.871355 54.322784 -2.0627053 3.6666667
21.787846 54.54108 -2.0518966 3.3333333
21.762531 54.941055 -2.0738919 2.1666667
21.783817 55.388054 -2.0814033 0.40000001
21.759392 55.909534 -2.0744109 1.75
21.810303 56.216637 -2.0875278 1.9
21.814838 56.568169 -2.0804935 3
21.755207 57.024731 -2.0741792 1.8181819
21.7943 57.43948 -2.0740755 3.25
21.796143 57.8139 -2.0726681 4.5
21.803764 58.144199 -2.0544827 2.7777777
21.84166 -2.1482952 -1.6413012 5
21.908257 -0.98400319 -1.7910992 3
21.767796 -0.78656048 -1.7895291 3
21.913366 -0.050191998 -1.6888616 3
21.81892 0.65089321 -1.7399424 4.7307692
21.793259 1.0177981 -1.8596383 4
21.838083 1.3269334 -1.8681693 4.2222223
21.81888 1.7873236 -1.8659792 4.25
21.955917 2.1860211 -1.8249704 4.75
21.905121 2.6066046 -1.7959197 5
21.819578 2.9891939 -1.8547938 4.75
21.92045 3.3988554 -1.7980021 4.5
21.893717 3.8393574 -1.8312546 4.5
21.841616 4.2337852 -1.8400437 4.5
21.829578 4.5643153 -1.8357303 4.7777777
21.77907 5.0390615 -1.908594 2
21.80751 5.4623909 -1.8211777 4.1999998
21.776609 5.8395281 -1.7530297 4
21.843674 6.1838222 -1.8525102 3.4000001
21.839149 6.5526013 -1.8471072 3.8181818
21.882021 6.9510798 -1.8616576 4
21.843805 7.4424415 -1.8883824 4.3076925
21.76939 7.8073926 -1.8516777 3.8
21.75848 8.2824898 -1.8574805 4.6666665
21.798742 8.6594963 -1.8385175 4
21.794569 9.0155363 -1.8471578 4.5
21.722488 9.4686785 -1.8957458 4.1999998
21.79793 9.7774286 -1.8577607 4.2222223
21.775169 10.173388 -1.8237509 5.3333335
21.871695 10.581973 -1.8224673 5.4000001
21.785542 11.014011 -1.7723863 5.75
21.68696 11.351726 -1.8545594 4.5
21.845388 11.8029 -1.8980738 3.75
21.826876 12.205754 -1.8718433 4.1999998
21.716415 12.630398 -1.8598708 4.2857141
21.756874 13.032987 -1.8681685 4.6666665
21.839039 13.403907 -1.8887895 4.3333335
21.859079 13.805634 -1.8279715 4.5999999
21.811201 14.179379 -1.8964345 4.375
21.613581 14.415222 -1.9305038 3
21.762974 15.004265 -1.8853061 4.8571429
21.852612 15.399243 -1.8730129 4.6999998
21.717348 15.784731 -1.8882262 4.8333335
21.834724 16.210789 -1.8424765 5
21.826757 16.599548 -1.8894955 4.625
21.846689 17.071117 -1.8460535 5
21.80801 17.423344 -1.8557903 4.8333335
21.832737 17.798475 -1.9137245 4.125
21.755524 18.154348 -1.8986093 4.5
21.823526 18.599707 -1.8704324 4.8461537
21.830797 19.054619 -1.9098972 4.1111112
21.791624 19.387827 -1.8915614 4.6363635
21.78009 19.796362 -1.8930556 5
21.76409 20.168144 -1.897544 4
21.776758 20.554182 -1.9158608 3.7142856
21.803413 20.954536 -1.8752043 4.352941
21.766888 21.409283 -1.8968607 4.1666665
21.771122 21.820213 -1.8982217 3.8
21.858139 22.284491 -1.8805606 4.4000001
21.784412 22.59837 -1.8678347 4.6999998
21.787319 23.007893 -1.890604 4.2142859
21.744753 23.461159 -1.8649679 4
21.814528 23.788792 -1.8947196 4.3333335
21.767107 24.211622 -1.9355564 4.1666665
21.736805 24.613926 -1.9428722 4
21.82357 25.012594 -1.8996433 3.5
21.76725 25.449856 -1.8755217 4.4545455
21.800722 25.815229 -1.8751242 4.3076925
21.76597 26.15547 -1.8898065 4.5882354
21.788488 26.586319 -1.9061939 4.0454545
21.859499 27.047663 -1.9070866 4.1538463
21.822441 27.412975 -1.9094807 3.6500001
21.847309 27.843733 -1.9045857 3.25
21.786007 28.200441 -1.9067507 3.2307692
21.857964 28.645309 -1.9092169 3.7777777
21.842909 29.054626 -1.9313427 3.625
21.81148 29.390486 -1.9197414 2.7333333
21.78857 29.781822 -1.9117165 2.625
21.76976 30.246906 -1.9031234 3.8333333
21.823996 30.603991 -1.9084702 2.95
21.765793 30.999392 -1.9168135 2.875
21.807774 31.373514 -1.9104935 2.7
21.835316 31.789965 -1.9184059 2.6842105
21.818794 32.187424 -1.9256853 2.5714285
21.781576 32.556599 -1.9068937 1.7777778
21.78694 33.031364 -1.9253104 3.2857144
21.838915 33.456047 -1.9053148 3.5833333
21.816351 33.78228 -1.9228176 3.4444444
21.783009 34.202621 -1.9228095 3.1818182
21.810448 34.626877 -1.9229836 2.4000001
21.759989 34.992996 -1.9239622 2.7142856
21.74547 35.402287 -1.938816 2.2352941
21.80031 35.782013 -1.9173007 3.1923077
21.842703 36.198196 -1.9304179 3.5454545
21.805939 36.591492 -1.9266814 3.6153846
21.827963 37.031166 -1.9251974 3.1333334
21.86594 37.388309 -1.9328479 3.7058823
21.790672 37.764084 -1.9606528 2.4444444
21.800018 38.181248 -1.9433529 2.7692308
21.833513 38.627037 -1.9471184 2.5384614
21.805243 39.015129 -1.9525905 2
21.827272 39.408585 -1.9597553 2.8
21.802021 39.853897 -1.9693412 2.0666666
21.868042 40.176823 -1.9722989 2.6666667
21.825125 40.571266 -1.9741271 1.8
21.811413 41.022984 -1.9684062 2.4444444
21.817204 41.412903 -1.9666327 2.375
21.849451 41.838253 -1.9785825 2.5333333
21.784781 42.204948 -1.9631754 2.5
21.851122 42.575039 -1.9727025 2.4736843
21.806211 42.975586 -1.9795446 1.7777778
21.79521 43.415092 -1.9873148 1.4545455
21.805737 43.811962 -1.9736698 1.7058823
21.756922 44.205235 -1.9876205 2
21.818871 44.598057 -1.9893215 2.0714285
21.826048 44.982841 -1.982897 1.8571428
21.840282 45.353954 -1.9708916 3.75
21.698105 45.800789 -1.9940693 3.3333333
21.763506 46.093456 -1.9860163 3.7142856
21.74159 46.63995 -1.9981208 3
21.839516 46.940079 -1.9792137 5.3333335
21.976009 47.309486 -1.9980779 2
21.893873 50.989475 -1.9997553 6
21.813103 58.216499 -1.7977203 4.6744184
21.751534 58.403706 -1.9232825 4
21.916313 -2.0573866 -1.5023538 5.5
21.790644 0.64996326 -1.4274292 5.0270271
21.813044 5.5213308 -1.3016226 5
21.724985 5.8517475 -1.3633752 4.8823528
21.694977 37.058342 -1.5891931 6
21.797939 58.21426 -1.38413 5.3076925
21.886456 58.402618 -1.5479684 5
21.854959 -2.1532307 -1.0578815 6
21.801529 0.6345619 -0.98440844 6.139535
21.755703 5.8148546 -1.107231 5.75
21.807495 58.234756 -1.0079281 6.4186049
21.86632 -2.1244898 -0.54108238 7
21.784035 0.63027799 -0.57086146 6.9166665
21.749788 0.80691439 -0.61510479 7
21.804916 58.231133 -0.69605076 7.0444446
21.876059 58.411221 -0.59057921 7.5
21.916838 -2.1652124 -0.23905212 7.5
21.803581 0.65287375 -0.1163552 7.9011846
21.806198 58.218338 -0.16578059 8.1923075
21.905222 58.423351 -0.017525384 9
21.829605 -2.1341794 0.16424367 8.1111202
21.942116 -1.9746577 0.061111607 8.073
21.810425 0.63073891 0.19672331 8.4000311
21.806313 4.4535685 0.32236668 9.1160002
21.880711 34.215221 0.38913694 9.1157503
21.959126 36.759418 0.39492556 9.1564999
21.757706 39.564335 0.37716654 10.073
21.923536 39.605762 0.35479861 9.1160002
21.678753 44.945824 0.37508544 12.3103
21.752802 47.64534 0.38036054 12.759268
21.776154 50.326878 0.35587075 12.34595
21.81916 53.034157 0.3425571 9.9678183
21.790815 55.750469 0.33202448 10.469699
21.766333 56.977928 0.30313417 9.4821491
21.808041 57.429893 0.2960085 10.539062
21.864027 57.787098 0.37003914 9.3691664
21.786072 58.24268 0.16872217 8.9757586
21.922779 58.403439 0.23880042 8.1745005
21.828234 -2.0767746 0.60284662 9
21.90427 -1.7503959 0.67114764 8.1555004
21.676237 -0.78033859 0.46878034 9.0979996
21.942169 0.30839571 0.4351224 8.1590004
21.813217 0.61519766 0.50634116 8.9276724
21.810547 0.80139613 0.51821053 9
21.818384 1.7784408 0.5699144 8.519701
21.8486 2.0096498 0.55434507 10.1555
21.733322 4.4525013 0.4792307 8.8963747
21.812292 5.4508038 0.67629975 9.2633572
21.833458 5.7182069 0.65010798 9.1440496
21.884779 6.2798467 0.70750976 9.0537071
21.782848 7.154346 0.55638802 8.3755627
21.701937 7.2341213 0.49072757 10.142
21.813799 9.6819153 0.47661611 8.8014994
21.739017 12.592242 0.55026978 8.323
21.856705 13.502714 0.71066266 9.6393328
21.819839 13.783798 0.5876227 9.8054161
21.797306 14.2233 0.6608153 9.1292048
21.791121 14.452309 0.64934164 10.024094
21.798645 15.244092 0.57698554 8.5486002
21.755825 17.843174 0.55268729 8.6310005
21.732479 18.149479 0.62512755 9.2582493
21.642036 20.718866 0.4658803 9.1248331
21.770134 21.191727 0.50812143 8.7390003
21.758945 21.295942 0.54217929 8.7401533
21.760801 21.640917 0.63666105 9.7880001
21.753937 22.201681 0.56202137 10.1395
21.838734 22.46991 0.65903664 9.4109001
21.842882 23.349602 0.50187021 9.0960627
21.764933 25.811666 0.48634106 8.7753887
21.808165 28.703514 0.48690581 9.7372999
21.784538 28.816029 0.48267937 10.12025
21.832834 29.77326 0.62590206 10.070945
21.789175 30.190069 0.59093225 10.510709
21.753023 30.571102 0.69806993 10.360642
21.815966 31.452961 0.49022543 9.3674793
21.801102 34.230434 0.52267069 10.937262
21.843256 36.780521 0.41995731 9.4625826
21.833298 36.854183 0.44985092 11.383683
21.805271 37.790745 0.62222618 11.745783
21.819702 38.159409 0.57456571 13.220932
21.81222 38.609909 0.65195262 11.590971
21.783978 39.530121 0.42702702 11.685333
21.76326 39.624493 0.50639611 8.1499996
21.758478 42.500511 0.42195937 12.56132
21.757008 44.975628 0.41579536 13.12875
21.810524 45.802246 0.62183613 11.253851
21.828272 46.226624 0.52057052 13.136056
21.78315 46.668938 0.55773914 13.637915
21.804558 46.84338 0.59987545 11.143688
21.850929 47.683594 0.46935433 8.7606668
21.801733 52.375057 0.73951638 12.1
21.818712 52.454414 0.77076674 12.601875
21.813662 53.038078 0.79442286 10.549625
21.92417 53.249561 0.79573429 11.0985
21.799892 53.886543 0.61037064 11.537002
21.822979 54.146725 0.45678315 12.8318
21.801451 54.657387 0.4406307 11.82575
21.703493 54.83456 0.45249426 11.0995
21.666214 56.568069 0.78667146 13.0325
21.800501 57.00568 0.77962953 12.6611
21.667057 57.446518 0.76725101 12.071667
21.884455 57.815769 0.64075053 10.366084
21.790524 58.21796 0.59090066 10.047271
21.837193 -2.1217279 0.85768265 10.08025
21.896431 -0.55096281 1.0495154 12.01375
21.653223 -0.15191916 0.93117237 10.1605
21.711338 0.64245331 0.94016171 10
21.802296 1.1373484 0.93933618 12.17475
21.703653 1.4767812 0.93865001 12.1735
21.798788 1.7663516 0.92542332 10.913438
21.91132 2.1849766 0.94419688 11.155251
21.641405 2.6025722 0.94470352 11.153999
21.934395 3.3003235 0.93353319 11.15075
21.725826 3.6995711 0.93654853 11.149501
21.621504 4.5488963 1.0368266 10.17675
21.694674 4.9307547 1.0357672 10.176
21.836046 5.3605404 0.92968714 11.671499
21.850698 6.2960234 0.83980483 9.1417999
21.762501 6.4029636 0.81989092 10.1575
21.852119 6.9334636 0.93148965 11.1475
21.828341 7.4209142 0.92357969 11.098332
21.780636 8.1156693 1.002165 11.158834
21.825577 8.5809555 0.97936702 10.909083
21.800543 9.1051722 0.9343397 10.654375
21.695326 9.4880228 0.93260419 11.14625
21.776455 9.8638277 0.97121036 10.901688
21.807793 10.198283 0.96291387 10.74605
21.896158 10.589183 0.92655969 11.138625
21.836689 10.947224 0.95147032 10.813333
21.799505 11.354569 0.92690915 11.146626
21.704082 11.8225 0.95610571 10.820464
21.821882 12.12711 0.96222448 10.769501
21.746555 12.656558 1.0164956 10.1615
21.792118 13.470906 0.86124581 9.9995079
21.715464 14.322946 1.039135 9.1785002
21.867718 14.5792 0.85751045 10.979917
21.777681 15.15988 0.92240375 11.14975
21.633408 15.484 0.92392313 11.14875
21.868923 15.976341 0.92785376 10.15975
21.929443 16.218107 0.91405213 11.1495
21.806072 16.612295 0.94969827 10.470334
21.651251 17.009531 0.9235146 11.140916
21.710436 17.241861 0.92399883 11.1275
21.912313 17.80209 0.92114675 11.12575
21.795416 18.17153 0.91855288 10.883375
21.893639 18.480455 0.92075133 10.618999
21.642246 18.883821 0.917557 11.144751
21.78336 19.279453 0.99913859 9.158
21.74464 19.897915 0.95554042 10.13925
21.908167 20.107546 0.91409719 11.1225
21.806732 20.609125 0.96996832 10.478166
21.772762 21.081535 0.91263676 10.786916
21.827623 21.568501 0.85185879 9.5353003
21.853802 21.640833 0.89039844 10.620251
21.740553 22.392963 0.95628059 9.5725002
21.786221 22.57374 0.94040757 9.8140707
21.856501 23.077581 0.95216507 10.65375
21.766768 23.350046 0.95784736 10.3266
21.789085 23.742443 0.91606408 10.390625
21.697197 24.155378 0.91583306 10.476334
21.745834 24.542551 0.93453526 10.386375
21.730169 25.039726 0.88824737 11.1062
21.83379 25.347311 0.88945007 11
21.72636 25.716354 0.89158493 10.2
21.775002 26.236248 0.9168359 10.730542
21.736877 26.526407 0.92352664 11.095666
21.796076 26.947493 0.94043374 11.124626
21.902166 27.58222 0.95107281 11.115251
21.630272 28.983704 0.89558572 11.12925
21.708944 29.403957 0.89734745 11.128
21.844477 29.694138 0.84233803 9.3641253
21.805418 30.641405 0.89647228 11.217021
21.744864 31.036955 0.94238967 11.818999
21.772606 31.423964 0.93748236 11.814697
21.758612 31.81477 0.93662757 11.332417
21.810741 32.161194 0.94503397 11.94098
21.823217 32.583954 0.94729912 12.035539
21.783524 32.922424 0.93829745 12.215158
21.796883 33.397129 0.9405067 12.00128
21.817596 33.815975 0.921799 12.177317
21.80776 34.180523 0.92032909 12.997657
21.84273 34.581242 0.92528903 12.347584
21.840721 34.991161 0.93064433 12.408724
21.839418 35.3941 0.94597369 12.908657
21.837196 35.753067 0.93371892 13.604709
21.858212 36.227528 0.93801028 14.566215
21.826616 36.637852 0.92184108 13.848594
21.730492 37.058956 0.90983677 12.333562
21.810736 37.426575 0.90814567 11.584812
21.893082 37.739307 0.84748727 10.645138
21.798233 38.67379 0.86952657 12.943501
21.796549 38.924656 0.8774395 12.16825
21.816793 39.364552 0.90456146 13.793334
21.788851 39.770531 0.8943786 11.078625
21.724421 40.247906 0.89759564 13.301367
21.793085 40.638744 0.88919854 12.286858
21.856621 41.030296 0.89030987 12.092125
21.803719 41.429283 0.89661562 13.879126
21.81292 41.807285 0.88861817 12.720905
21.840302 42.119942 0.89256495 13.696
21.778351 42.559414 0.8873753 13.437963
21.831049 42.966312 0.88695103 14.124535
21.814661 43.421112 0.88048661 13.416071
21.799395 43.709141 0.88519144 13.123959
21.70434 44.150883 0.86897397 11.672607
21.796736 44.592964 0.88119876 13.601
21.972799 44.911404 0.86274129 13
21.72942 45.534443 0.86255705 12.605062
21.813034 45.746822 0.84162998 11.77259
21.710972 46.792351 0.85368431 14.15925
21.787071 46.990349 0.8465876 14.160126
21.862478 47.325382 0.84471971 15.15925
21.673771 47.924652 0.84874195 15.164
21.7959 48.321278 0.84373814 14.637125
21.785501 48.586182 0.84069294 13.857375
21.867138 49.006393 0.83924919 13.490399
21.795059 49.389755 0.82766467 12.10075
21.796047 49.782551 0.84125566 14.440167
21.799458 50.244049 0.83944064 13.73875
21.788717 50.626743 0.83209813 12.0427
21.812155 50.940197 0.82554924 12.932263
21.904606 51.353031 0.82694453 14.10475
21.699463 51.8624 0.81904936 13.102625
21.862911 52.240772 0.81099153 12.0385
21.659176 52.591915 0.81651288 13.102625
21.87188 52.974979 0.80835938 14.07375
21.776108 53.437542 0.80502886 13.865201
21.638826 53.839596 0.80136847 12.5
22.073477 6.3670869 -2.0075176 6
22.111475 26.812094 -2.0084248 5
22.165321 28.084124 -2.0110285 5
22.193413 36.187016 -2.0052936 3
22.376541 36.673313 -2.0017464 1
22.137177 37.908474 -2.0092642 4
22.189007 38.681313 -2.0173638 2.6666667
22.251858 39.06496 -2.0103464 3.75
22.068321 39.8083 -2.0072012 3.5
22.196373 40.148376 -2.0060756 3.6666667
22.233425 40.505581 -2.0024791 4
22.242998 40.996483 -2.0118504 3.4000001
22.1336 41.383064 -2.0179405 3
22.263355 41.898544 -2.013047 3.6666667
22.308817 42.281948 -2.0027244 4
22.198715 42.588161 -2.0198703 5
22.290493 42.996254 -2.0170043 5
22.223177 43.48719 -2.0284352 4
22.206589 43.713776 -2.0187459 4
22.194818 44.092606 -2.0034761 3
22.161173 44.616837 -2.0237436 4.25
22.16654 45.141808 -2.0041547 0.66666669
22.174053 45.440426 -2.0114884 2.875
22.225088 45.732277 -2.019768 2.4444444
22.181694 46.220089 -2.0075519 2.2
22.142183 46.614624 -2.0175867 1.8125
22.228518 46.959835 -2.0228798 2
22.218752 47.3806 -2.0168414 3.2727273
22.244339 47.760242 -2.0280714 2.8095238
22.222923 48.21529 -2.0333474 3.0833333
22.227737 48.595795 -2.0352824 1.2727273
22.27755 49.023479 -2.0363617 1.6
22.256052 49.428474 -2.0366943 2.4285715
22.247408 49.793793 -2.0345631 2.3076923
22.111084 50.161777 -2.0341654 2.8571429
22.201317 50.562256 -2.0433807 3
22.300602 51.0602 -2.0508363 2.25
22.224031 51.425949 -2.0438728 1.75
22.219444 51.750675 -2.0431426 2.5
22.183416 52.174034 -2.0572007 1.3333334
22.186176 52.616554 -2.0517597 2.25
22.182507 52.92981 -2.0470908 1.6666666
22.143925 53.319168 -2.0530443 3.5714285
22.189573 53.820744 -2.078815 2.8
22.164139 54.233208 -2.0678127 1.8333334
22.189163 54.755013 -2.0722039 2
22.221283 55.090061 -2.0837479 2.1428571
22.241648 55.417469 -2.0873232 0.66666669
22.145784 55.831314 -2.0580578 2.8
22.208174 56.211407 -2.0934033 1.8
22.196655 56.561855 -2.091114 1.8571428
22.196009 57.06633 -2.0696187 3.0999999
22.19219 57.42527 -2.0814536 3.1428571
22.211809 57.795502 -2.079314 4.3333335
22.216848 58.189827 -2.0571861 3.125
22.184975 -2.1080985 -1.6904931 5.3333335
22.085516 -1.9596021 -1.688924 5
22.346685 -0.0064570452 -1.7952098 3
22.371952 0.08856155 -1.6803126 2
22.192495 0.65176427 -1.7409205 4.6296296
22.113291 0.98825735 -1.8332013 4.7142859
22.159149 1.4621099 -1.84759 5
22.176805 1.8053275 -1.8141425 4.6666665
22.232712 2.2199056 -1.830116 4
22.229309 2.6021791 -1.8265129 3.6428571
22.16231 2.9734387 -1.8342311 4.2142859
22.188141 3.4137177 -1.8479427 3.75
22.189396 3.821944 -1.8384744 3.5625
22.245993 4.2343569 -1.8164614 4.5833335
22.253069 4.5960393 -1.8411443 3.3333333
22.276731 4.9899287 -1.8630235 3.1428571
22.279963 5.3685565 -1.8669975 3.8
22.150309 5.818543 -1.8178558 4.6666665
22.208988 6.1831079 -1.8681184 4
22.146877 6.5091939 -1.8320969 5.25
22.145838 7.0589447 -1.8761816 3.1666667
22.256235 7.3942151 -1.816658 4.5
22.253239 7.8056359 -1.8488555 5.3333335
22.229086 8.1587448 -1.8603822 5
22.280582 8.5660686 -1.8753877 4
22.178392 8.9670696 -1.8107321 4.4000001
22.193653 9.4007444 -1.8286265 5
22.149786 9.8403101 -1.8465692 5.1666665
22.274265 10.17242 -1.8159963 4.7142859
22.187414 10.589371 -1.79767 5
22.227827 11.004133 -1.8233724 5.125
22.246283 11.391367 -1.8312968 5.25
22.211052 11.749326 -1.8394116 4.8333335
22.207136 12.18868 -1.8940449 4
22.178841 12.581594 -1.8596294 4.8000002
22.27244 12.990795 -1.8740866 4.2857141
22.206867 13.397973 -1.8931471 4.181818
22.194267 13.792524 -1.8605422 4.5999999
22.229626 14.222916 -1.8492119 4.8571429
22.190775 14.624083 -1.8532232 4.3333335
22.223171 14.976088 -1.8341985 5.5
22.177284 15.39413 -1.9049891 4.8571429
22.208326 15.794075 -1.831857 5.1428571
22.203299 16.243494 -1.8193167 5.8000002
22.201937 16.608656 -1.8760266 4.8571429
22.181004 17.037029 -1.9398949 3.4000001
22.154644 17.410051 -1.8811746 4.6923075
22.184551 17.810177 -1.8914292 4.8000002
22.215544 18.233316 -1.8437612 5.4000001
22.27293 18.642027 -1.873086 5
22.259783 18.93232 -1.8612602 5
22.139879 19.408312 -1.8815551 4.818182
22.180542 19.778688 -1.8370436 5.1428571
22.231192 20.138231 -1.8709034 5.1666665
22.243824 20.642759 -1.8355249 4.8333335
22.187775 20.997555 -1.8916835 4.1999998
22.215696 21.310659 -1.8025039 4.75
22.179201 21.79463 -1.8719643 4.818182
22.218739 22.254295 -1.8623608 4.5
22.153299 22.604769 -1.912069 4
22.200075 22.930738 -1.9279838 4
22.252789 23.359724 -1.8794219 4.5999999
22.205162 23.720863 -1.868278 4.5
22.18998 24.213425 -1.9150481 4.0833335
22.210785 24.623226 -1.9086938 4
22.176376 24.929911 -1.9054556 3.6666667
22.204208 25.390516 -1.9221323 4.1999998
22.158812 25.76627 -1.8957514 4.2222223
22.213945 26.153473 -1.9165334 4.090909
22.133249 26.565166 -1.8758669 4.8000002
22.19136 27.00876 -1.9000856 4.0588236
22.175299 27.401941 -1.914235 3.5882354
22.1485 27.766315 -1.9153167 3.25
22.203974 28.212633 -1.9341182 3.6666667
22.205139 28.55551 -1.9156355 3.5555556
22.208136 29.022488 -1.9069077 2.6428571
22.140881 29.392574 -1.9241034 2.8499999
22.261475 29.782595 -1.9258496 3.4285715
22.229998 30.196251 -1.9227551 2.5833333
22.237791 30.630386 -1.9141746 1.625
22.190397 30.963564 -1.9250532 1.6923077
22.189346 31.40288 -1.9089833 3.2857144
22.193546 31.810835 -1.9299364 3
22.213879 32.17651 -1.9138439 3.4000001
22.210249 32.623199 -1.9237554 3.5999999
22.264404 32.995144 -1.937438 2.9230769
22.26837 33.368843 -1.9177818 2.3499999
22.294315 33.818878 -1.9285485 2.4000001
22.206078 34.224369 -1.9417217 3.5555556
22.216633 34.656883 -1.9236187 3.2142856
22.209764 34.945854 -1.9562615 3.3333333
22.242104 35.435627 -1.9485363 3
22.185787 35.783527 -1.9523475 2.5555556
22.169788 36.152645 -1.9614846 3.2142856
22.148119 36.578945 -1.9529586 2.2916667
22.161669 37.000023 -1.9483438 2.9166667
22.179663 37.435871 -1.9600747 2.9230769
22.221136 37.791454 -1.9431467 2.4545455
22.153017 38.222687 -1.9277842 3.1428571
22.223612 38.644436 -1.9435564 2.4285715
22.130636 38.975052 -1.9572619 2.3
22.154915 39.370674 -1.9538568 2.0769231
22.184139 39.734112 -1.9737706 1.375
22.195757 40.226192 -1.9588075 2.4285715
22.231918 40.576271 -1.9748071 2.4615386
22.143141 40.99276 -1.9669653 2.3571429
22.107927 41.460419 -1.9704829 2.3333333
22.178919 41.796925 -1.9558877 2.7727273
22.163181 42.193237 -1.9740838 2.7
22.200779 42.652412 -1.9689503 2.5
22.178068 43.041302 -1.9903376 1.9
22.197222 43.365086 -1.9684592 1.8
22.18084 43.799438 -1.9887639 1.3636364
22.156595 44.212784 -1.9853673 2
22.191233 44.626789 -1.9936109 1.1111112
22.133608 45.000759 -1.9766428 4
22.071772 45.406612 -1.9588301 3.4000001
22.096495 45.930679 -1.9947888 3.6666667
22.192575 46.05669 -1.9962398 3.6666667
22.153008 46.606144 -1.9795772 4.6666665
22.007818 46.98724 -1.9963551 2
22.278234 47.268303 -1.9768668 5
22.324314 48.025826 -1.9448045 5
22.212193 58.207512 -1.7869016 4.6750002
22.215595 58.409115 -1.9648576 4
22.202351 -2.0834231 -1.5044304 5.8571429
22.198452 0.64951134 -1.4363654 4.9333334
22.033178 0.80169958 -1.3588674 5
22.102966 5.9383874 -1.5803248 6
22.210796 58.220695 -1.3748103 5.5
22.174135 58.406483 -1.5669719 5
22.169924 -2.1058764 -0.96239561 6.5
22.216047 0.63413662 -0.97461987 6.123189
22.141096 0.80183393 -0.89141399 6
22.218613 58.22995 -0.99158561 6.6666665
22.125771 58.409702 -0.94678682 6.75
22.197325 -2.1023278 -0.69961244 7
22.193972 0.63790989 -0.59609336 6.9019608
22.188589 58.236534 -0.69022989 7.0731707
22.11754 58.413448 -0.78594548 7
22.162937 -2.0838356 -0.056787223 8.0332003
22.203796 0.65756071 -0.13146336 7.9044595
22.203947 58.245548 -0.17264806 8.182066
22.094702 58.413113 -0.30184543 8.25
22.178499 -2.087564 0.11352456 8.1661158
22.187462 0.6373266 0.18243644 8.4923544
22.316969 4.4438939 0.32782874 9.1164999
22.296009 21.198959 0.36619154 8.0994997
22.240229 39.511898 0.39301825 9.6029997
22.26162 42.448368 0.39381608 10.1445
22.170835 44.938072 0.38178068 11.957291
22.236103 47.666656 0.3821449 10.434125
22.166111 50.338371 0.3597714 11.506049
22.123529 50.424343 0.36328447 8.0985003
22.209213 53.010426 0.34195191 11.687515
22.260036 55.732128 0.32724324 10.662499
22.22838 56.938828 0.31553787 10.090291
22.145506 57.507355 0.29576263 10.193608
22.216007 57.686573 0.38486728 8.1599998
22.190937 58.263302 0.15277062 8.8655272
22.18351 58.424671 0.074082367 8.7249994
22.211977 -2.1265984 0.68692166 8.553875
22.056744 -1.7641939 0.65015382 9.0705004
22.118885 -1.5322191 0.53079486 9.0855007
22.346928 -0.91043776 0.48373118 10.176
22.183924 0.61798167 0.52928096 8.8776512
22.212086 0.8043654 0.53692669 9
22.205408 1.8642985 0.55064297 9.3486252
22.140047 2.0083034 0.5367046 9.6367493
22.180244 4.5226388 0.48723933 8.5488997
22.248766 5.4138565 0.70042944 10.524327
22.1765 5.8251882 0.64072913 10.018437
22.195034 6.2654004 0.68786222 9.6978483
22.102112 6.413033 0.72504264 11.145
22.210442 7.183712 0.54882526 9.8188334
22.140984 9.5477486 0.58760458 8.1414995
22.100981 9.6576223 0.55051541 8.6396255
22.122681 12.561697 0.53061259 8.4936876
22.20154 13.509733 0.71025461 9.9712915
22.163527 13.882007 0.58124703 9.6598749
22.208441 14.233743 0.63574457 9.2761078
22.214216 14.466919 0.66536587 9.9016876
22.161751 15.300882 0.51884204 8.6281252
22.267937 17.905487 0.52829349 8.6333752
22.140167 18.117912 0.52672279 9.1340771
22.05925 20.674685 0.53074586 8.4494162
22.149166 21.181675 0.52077359 9.1464996
22.191885 21.363121 0.56878668 8.9806376
22.237831 21.732374 0.61277348 9.2705708
22.296774 22.167665 0.61733335 9.4683332
22.214798 22.46826 0.69600934 9.4305992
22.17452 23.338699 0.52151805 9.0819998
22.071327 25.736952 0.49702576 9.1389999
22.267437 28.749317 0.51344675 9.5563221
22.077961 28.803915 0.45904994 10.121
22.286573 29.80356 0.61869252 9.859025
22.170218 30.221611 0.60279983 10.370657
22.172201 30.568274 0.68214917 10.057977
22.221264 31.428841 0.48219648 9.4616127
22.238066 34.246529 0.51977789 10.815934
22.188744 36.770332 0.43812776 9.4881668
22.179817 36.846333 0.46364638 11.655999
22.316687 37.530224 0.60506696 8.1140003
22.204523 37.766586 0.6446324 11.470119
22.169212 38.181023 0.56876111 11.952999
22.218288 38.629177 0.63889349 11.091169
22.207193 39.531696 0.42975989 11.748346
22.295023 42.481392 0.43752876 12.133068
22.208794 44.944389 0.44536862 11.989626
22.171331 45.824913 0.63822979 11.406922
22.263083 46.146133 0.51435423 12.885531
22.201899 46.665489 0.56402564 13.647467
22.188007 46.845699 0.6525315 11.144
22.261328 47.633305 0.40004697 14.112
22.361809 52.32687 0.7833215 11.0995
22.229702 53.048538 0.79288197 11.799874
22.165796 53.567844 0.79783064 15.0865
22.217562 53.874668 0.62343222 11.760398
22.203876 54.202011 0.45143145 11.63365
22.150431 54.631386 0.44339713 11.618051
22.22315 56.655834 0.79139763 13.0625
22.284756 56.997818 0.77305472 12.721749
22.065775 57.429848 0.76194406 12.039166
22.252201 57.791981 0.75426143 11.317312
22.196253 58.242844 0.58029807 9.9756451
22.094902 -2.1249154 0.84096593 10
22.111359 -1.2942513 0.93520665 11.173
22.212893 -0.66355276 0.92686629 10.162
22.360382 0.68977642 1.0401647 10.0055
22.275021 0.8797344 0.91620016 11.1615
22.19923 1.2895323 0.97589779 10.582251
22.086176 1.9469577 0.9431091 11.156
22.381222 2.6600125 0.99285293 11.762917
22.265711 3.0135083 0.95316786 11.620687
22.301332 3.4041154 0.98582882 12.170124
22.299736 3.7160602 0.98583269 12.169001
22.164934 4.2250867 0.94005764 12.16
22.177019 4.7082486 0.93793857 12.15825
22.190516 5.0504794 0.93880558 12.157
22.26363 5.3631983 0.9278428 10.674
22.197941 6.3089423 0.87820995 8.8830004
22.160683 6.6525111 0.93384194 11.149876
22.213257 7.2919097 0.93475908 11.650625
22.314543 7.7919569 0.93519914 10.657625
22.152834 8.2570238 0.93181044 11.150001
22.08902 8.5363417 0.97094363 10.825583
22.188633 8.9958172 1.0232524 11
22.241678 9.8310518 0.93814313 11.152201
22.188698 10.268791 0.94709742 10.95085
22.200716 10.629525 0.97586042 10.651208
22.265539 11.033297 0.96881962 10.648
22.156092 11.400661 0.92694294 11.12725
22.320585 11.758387 0.92258972 11.13875
22.170792 12.357719 1.0392324 10.162
22.191357 12.620343 0.94421893 10.790375
22.014313 12.925845 1.0128396 10.160749
22.126926 13.493922 0.88046968 10.639375
22.205578 14.311798 1.0311162 9.1789999
22.220863 14.457049 0.9267171 10.408688
22.326616 15.471231 0.90481341 11.13825
22.141161 15.85947 0.96179909 10.303042
22.217461 16.2939 0.96070015 10.13225
22.054493 16.432121 1.0044452 9.1145
22.185736 17.405619 0.92668444 10.766083
22.023298 17.905628 0.91220891 11.14775
22.140007 18.15943 0.91770244 10.812667
22.165905 18.488661 0.91704589 11.136625
22.241951 18.954256 0.91831785 10.870375
22.305531 19.517275 0.91185331 10.617001
22.096228 20.169886 0.98808479 9.1545
22.180632 20.639795 0.91152966 11.12075
22.373554 21.022528 0.91271591 11.1195
22.03159 21.422522 0.88898987 9.6322498
22.184206 21.62208 0.83338892 9.8736877
22.208784 22.38637 0.91327226 10.14575
22.20219 22.503046 0.93188435 9.8378429
22.146421 23.07831 0.94739932 10.463917
22.088289 23.493771 0.91929317 10.643375
22.122362 23.803823 0.9024601 10.52715
22.199957 24.182184 0.93827832 10.380125
22.039742 24.633387 1.0013331 10.173
22.234285 25.006887 0.89736205 11.123751
22.036392 25.453428 0.89113277 11
22.186012 25.84561 0.8914727 11
22.222246 26.248148 0.92680198 10.71375
22.155024 26.631063 0.93080723 10.812907
22.232527 27.068172 0.94382524 11.135
22.081667 27.529352 0.87546122 10.1105
22.249411 27.824263 0.87381816 10.914351
22.297222 28.593014 0.86545449 11.146375
22.268702 29.722788 0.85460806 9.1040001
22.227039 30.580313 0.87760979 11.421962
22.195259 30.961361 0.95695359 11.12048
22.224621 31.403225 0.95889366 11.7167
22.168213 31.767229 0.94872338 13.246303
22.141907 32.221855 0.93574661 11.975208
22.204638 32.643745 0.94358754 13.304126
22.247778 33.029522 0.94173574 14.130928
22.15761 33.401634 0.93599266 13.235001
22.10878 33.817913 0.94458729 14.147714
22.200108 34.227886 0.92346144 13.733236
22.186876 34.588554 0.91785502 13.464166
22.173819 34.932468 0.91230565 12.829224
22.231264 35.361214 0.91325498 12.875281
22.125269 35.828991 0.92997104 12.398929
22.103724 36.195637 0.93542761 12.38625
22.140852 36.641052 0.93274045 12.257146
22.253138 37.02985 0.93405795 12.59
22.353891 37.465759 0.93823147 11.588
22.125509 37.701729 0.89359391 11.887401
22.226471 38.642624 0.87437266 11.49175
22.175411 39.108555 0.9042021 13.738524
22.222607 39.516693 0.897223 11.832749
22.181461 39.879593 0.89590096 12.564327
22.192877 40.198486 0.89344102 13.140821
22.235323 40.683872 0.87987405 11.750416
22.228247 41.006744 0.88047302 13.270249
22.153286 41.340515 0.89154667 13.455667
22.247366 41.793865 0.88841552 12.73747
22.240257 42.213821 0.8838796 12.732038
22.299797 42.594757 0.885728 14.393104
22.255873 43.042698 0.87743545 12.944542
22.22151 43.389359 0.8792398 13.839091
22.187376 43.826958 0.87441683 13.127357
22.156027 44.29855 0.86403 12.118052
22.189283 44.66383 0.85197622 12.349875
22.179346 44.974903 0.86795557 13.8625
22.208359 45.774971 0.84208608 13.038134
22.306332 46.776623 0.82674098 13.908813
22.021837 47.098122 0.84792566 13.662624
22.196341 47.440369 0.84329498 13.913813
22.286125 47.850559 0.83927405 15.144666
22.182444 48.714664 0.83724785 14.125916
22.242233 49.13715 0.83782721 13.057167
22.245085 49.429939 0.8291536 12.457
22.184719 49.906639 0.83541375 13.793918
22.152475 50.140694 0.83723938 14.641624
22.177197 50.577641 0.83209461 13.440917
22.17923 50.986977 0.82222885 12.399299
22.219767 51.311153 0.81864494 12.801562
22.126966 51.8181 0.81402886 13.262217
22.146349 52.301105 0.81136888 12.826376
22.217564 52.656487 0.81023854 14.375584
22.096502 53.052738 0.80428964 13.60125
22.740967 16.197971 -2.1579473 5
22.616217 27.059328 -2.0111909 5
22.502712 28.241713 -2.0132523 5
22.559246 34.711559 -2.0014391 5
22.766584 35.444321 -2.007901 4
22.557316 36.403656 -2.0111191 4
22.551529 37.025425 -2.0037589 1
22.728085 37.341373 -2.0057781 1
22.677732 37.616547 -2.0015321 3
22.510336 38.274452 -2.0091455 3.3333333
22.612658 38.578102 -2.0056169 2
22.605375 38.990833 -2.0218735 2.6666667
22.612701 39.343021 -2.0173008 3.3333333
22.490242 40.288891 -2.0108321 3.6666667
22.545198 40.56031 -2.0118062 3.3333333
22.739946 40.861313 -2.0104623 3.5
22.588478 41.409077 -2.015564 3
22.650438 41.738258 -2.0177495 3.5
22.602028 42.203339 -2.0122752 3.7142856
22.497196 42.626801 -2.0130413 4
22.65431 43.008396 -2.0143392 3.6666667
22.663158 43.491577 -2.0239286 4.5
22.541233 43.720139 -2.0292466 4
22.547243 44.263298 -2.0074177 3
22.684484 44.59901 -2.0059037 1.75
22.601631 44.920128 -2.023397 3.5714285
22.633984 45.334972 -2.0116446 2.6666667
22.595613 45.768417 -2.027638 3
22.611464 46.195061 -2.0207515 1.625
22.622055 46.602772 -2.0209951 2.8888888
22.538788 47.01741 -2.019382 2.875
22.633051 47.404591 -2.0218883 2.8888888
22.660402 47.823639 -2.0308082 2.5454545
22.609097 48.223354 -2.0372353 2.2
22.570635 48.556316 -2.0284343 3.2727273
22.657486 48.974693 -2.0382171 1.6
22.533697 49.477451 -2.0368962 3
22.574713 49.84444 -2.0400386 2.090909
22.533894 50.189308 -2.0498028 2
22.57003 50.595978 -2.0472002 2.6666667
22.594166 50.959305 -2.0415273 1.9090909
22.596811 51.334187 -2.0502853 2.5999999
22.592894 51.77158 -2.052036 3
22.595825 52.261967 -2.0502355 2.8333333
22.445906 52.636204 -2.0489774 2.3333333
22.644672 53.027851 -2.0584674 1.8
22.60445 53.381615 -2.0597956 3.5999999
22.582861 53.771042 -2.0876861 4.25
22.560999 54.168736 -2.067162 1.8
22.530405 54.430904 -2.0689366 3.5
22.596548 55.065666 -2.0867612 1.6
22.579174 55.398556 -2.0903673 2.25
22.59543 55.780827 -2.1006563 1
22.606342 56.164944 -2.0981493 1.2222222
22.631218 56.573227 -2.0966024 2.8888888
22.574789 56.981922 -2.0759573 3
22.565567 57.370567 -2.0866542 2.8
22.607401 57.808399 -2.0884829 3.4285715
22.585436 58.17104 -2.0593235 3.2
22.551218 -2.0967171 -1.6760248 5.3333335
22.702423 -1.6618806 -1.7950364 6
22.627203 -0.27546602 -1.8012085 3.5
22.616535 0.66195482 -1.7701335 4.087719
22.649551 0.9918679 -1.8476832 3.8
22.588614 1.393273 -1.8638793 3.5833333
22.569651 1.8211305 -1.8352839 3.7
22.617411 2.2383637 -1.84689 3.25
22.603645 2.6274531 -1.8608078 4.3333335
22.61055 2.9685531 -1.8138063 5
22.577276 3.3670681 -1.8700882 4.1999998
22.561533 3.7908313 -1.8799218 4.5
22.535156 4.3163757 -1.8295274 4.75
22.653786 4.5882936 -1.8345555 4
22.612812 4.9927464 -1.8495831 3.3636363
22.621176 5.396893 -1.8521247 3.3333333
22.600809 5.8328018 -1.8368702 3.7272727
22.638712 6.1873245 -1.8702588 3.0833333
22.619884 6.5838127 -1.8684646 3.7272727
22.606844 7.0185504 -1.891776 3.6666667
22.590481 7.3866529 -1.884207 3.8888888
22.5604 7.826632 -1.8651696 4
22.605064 8.1760836 -1.8664926 4.25
22.636087 8.5658417 -1.8401209 4.5
22.712816 9.033783 -1.8555974 3.7142856
22.659029 9.4073696 -1.853418 3.8888888
22.575872 9.8095217 -1.8823056 4.2222223
22.58807 10.260979 -1.867519 4.3000002
22.576996 10.587222 -1.8519453 4.1666665
22.527298 11.010968 -1.8602523 3.8571429
22.490601 11.425538 -1.9021956 2.75
22.49822 11.85043 -1.8913238 3.4000001
22.533781 12.214157 -1.8992012 3
22.554342 12.605811 -1.9268262 3.1538463
22.556276 12.992738 -1.91145 3.1666667
22.579609 13.411424 -1.9229141 3
22.584768 13.821678 -1.891965 3.8461537
22.631851 14.177529 -1.8919215 3.909091
22.616827 14.632893 -1.9010643 3.8571429
22.594942 15.018658 -1.9139431 3.9000001
22.577726 15.396338 -1.8697144 4.0833335
22.607706 15.734964 -1.8902069 3.9000001
22.643862 16.203981 -1.8789077 3.8333333
22.662447 16.564051 -1.8606924 3.8333333
22.624706 17.088421 -1.897393 3.5
22.641518 17.353533 -1.8907759 4.25
22.601463 17.735907 -1.8771679 4.5
22.578756 18.219233 -1.8626015 4.4000001
22.585676 18.612726 -1.8926769 4.2727275
22.584288 18.984669 -1.9147685 4.1999998
22.656738 19.445309 -1.874622 4
22.647333 19.820312 -1.8764218 4.4166665
22.647795 20.19278 -1.8730198 3.9000001
22.632118 20.59763 -1.9015917 4.0833335
22.590155 20.967607 -1.8941284 4.0833335
22.591446 21.397463 -1.8802452 4
22.630894 21.816744 -1.8767835 4.3333335
22.672588 22.231514 -1.9112221 3.5
22.653027 22.595703 -1.9016061 3.8888888
22.538212 23.060646 -1.8662224 3.6666667
22.651428 23.402378 -1.9198642 4.3333335
22.607689 23.79137 -1.8982517 4.1428571
22.678045 24.219389 -1.9288118 3.8571429
22.626394 24.575048 -1.9246609 3.2857144
22.673315 24.953915 -1.949519 3.0833333
22.658308 25.417526 -1.9102141 3.6923077
22.603769 25.791693 -1.9050562 3.7333333
22.645041 26.169399 -1.9234964 3.25
22.64642 26.624773 -1.9033327 3.375
22.561428 27.038847 -1.915108 2.9230769
22.604736 27.354891 -1.9064503 3.0833333
22.574432 27.799547 -1.9116111 3.4444444
22.543453 28.207483 -1.9275088 3.5555556
22.581926 28.628803 -1.9106472 2.7142856
